# .PCD v0.7 - Point Cloud Data file format
VERSION 0.7
FIELDS x y z
SIZE 4 4 4
TYPE F F F
COUNT 1 1 1
WIDTH 1653
HEIGHT 1
VIEWPOINT 0 0 0 1 0 0 0
POINTS 1653
DATA ascii
34.299714 -5.500452 -0.003590
-8.165440 8.611498 0.033530
-0.331942 7.658255 -0.011389
29.046116 9.387657 0.029527
-11.403112 -5.879998 0.017611
0.102950 7.648705 -0.001805
32.640361 -7.708759 -0.008532
-12.461390 3.812207 -0.003303
37.253881 4.451995 0.016140
36.707050 6.946017 0.023234
4.810992 8.707380 -0.021302
26.739310 4.259474 0.007927
9.476058 -7.613655 0.020874
11.166927 -0.177449 -0.008789
21.246212 2.747228 0.032302
-1.744803 -8.036436 -0.004446
25.951959 2.297397 0.016268
-12.520239 -7.070021 -0.021764
10.223166 -7.866356 0.003204
36.812044 -7.612744 -0.033968
9.113827 1.661554 -0.012899
28.844014 5.300247 -0.002512
10.761311 -8.718969 -0.040021
-1.552270 6.130728 -0.014564
8.510252 -0.275590 0.001765
-4.572890 9.011529 0.023519
11.691356 -9.172724 -0.015153
8.962603 9.987988 0.010139
7.869560 -1.205880 0.009387
38.576204 7.781994 -0.005750
26.220167 -3.885987 -0.010650
20.887637 5.932842 -0.008238
-16.466220 -0.733630 0.008270
17.700827 -3.790441 0.032907
9.965656 -8.633342 -0.013447
-1.764579 2.100400 0.014080
14.753271 8.624894 0.003415
38.167812 -0.462357 0.032178
15.325568 1.689424 0.001713
-6.905070 6.716833 -0.007185
-9.238639 0.925719 -0.001406
20.279824 1.500000 1.616537
28.935966 3.955029 0.007005
-11.082552 -8.526680 -0.004537
12.251166 0.436992 -0.006598
-15.097115 8.503844 0.023320
25.316225 -6.120677 0.009134
-13.206885 4.322496 -0.008226
-2.502687 6.885728 -0.034609
39.956592 -7.779731 -0.012684
4.798754 -8.866248 -0.014947
1.358361 -2.752647 -0.002920
31.766247 1.870143 -0.010648
31.140868 2.714406 -0.002248
-16.778169 8.144197 0.031021
32.208580 -6.702232 -0.012471
11.622359 1.546318 -0.013480
-13.416572 3.356828 -0.006338
11.870172 7.975944 -0.025988
33.639383 -6.491026 -0.004379
7.700000 -4.969621 0.466880
-11.877284 -4.181407 0.014957
-18.671650 2.397225 0.006947
33.728536 8.961965 -0.020311
-10.126227 5.853324 -0.047258
33.170906 1.379301 -0.029725
-10.097760 1.721487 0.008792
5.713830 -9.398180 0.015663
-15.549428 -3.254335 -0.010181
3.850945 -0.569246 0.015416
17.539047 7.784609 -0.013317
9.626169 -0.698468 0.023033
2.497873 -3.970004 -0.011945
30.509727 -5.107876 -0.002699
29.496030 0.623359 0.000455
13.000000 -1.610395 1.586663
21.000000 1.347779 0.455326
34.473928 -0.674515 0.002508
7.752097 9.719373 0.018699
18.734418 0.235082 -0.030992
19.147489 -7.877025 0.019186
-6.073462 6.472930 -0.029708
2.714011 1.565733 -0.027102
19.754125 1.500000 0.975125
30.180592 6.394802 0.002610
-10.997080 4.739311 -0.016338
21.385278 5.462889 0.017418
14.177078 -8.346443 0.025410
16.514296 -4.097444 0.009441
8.019965 3.580845 -0.019364
-15.375078 6.529671 0.004011
-15.509431 -4.034444 -0.031672
-14.341241 1.220097 0.028273
29.502965 7.215398 0.016166
30.260429 9.647710 0.019129
13.417125 -1.202010 0.008657
35.635892 4.021916 -0.007178
20.437801 1.500000 1.380807
20.233937 0.732215 0.000000
34.931004 9.556793 0.068131
8.300000 -4.722094 0.352467
-1.624539 0.789587 0.032047
28.202654 2.730865 0.060754
8.835195 0.909258 -0.038352
13.558112 -0.365674 0.049614
-7.085371 3.809216 0.029838
39.730987 -5.178197 0.026085
-10.919524 4.897334 -0.039627
-16.281498 -0.299228 0.012646
14.184894 -3.974346 0.012468
33.253784 1.070037 0.020254
-11.384546 7.700080 0.010072
18.823732 1.974662 -0.031664
26.329150 7.724628 0.008924
6.325733 -5.494360 0.006147
38.224168 6.682013 -0.004542
16.183256 -7.871089 0.002908
-9.372900 6.986684 1.726804
-5.871715 -7.404385 0.008903
35.315660 7.235383 -0.025406
38.957065 9.417092 -0.015328
18.523429 -4.097209 0.018405
6.063694 5.100512 -0.018151
-11.372890 -0.484065 0.029591
2.967926 2.063750 0.002309
28.929984 6.822552 0.002719
-12.271216 -4.153157 -0.002015
32.466663 -7.121779 -0.037323
11.124186 -4.164278 0.003883
6.000000 0.028047 0.199234
-0.525420 7.230505 0.016672
39.615842 5.180663 -0.007538
1.605406 7.401247 0.022207
18.489248 1.796625 -0.004615
-7.563760 4.319436 -0.010740
23.406869 -9.294740 0.000380
-16.354776 -9.712511 0.047391
-1.119691 -7.347012 -0.011767
7.900571 3.905784 -0.025047
36.805375 5.885159 0.031056
-0.459996 4.400669 0.003504
23.190308 -1.525744 -0.002701
16.325503 7.384511 -0.013607
20.508631 9.366832 0.004150
4.107620 -4.995986 -0.009397
8.298586 -4.716210 0.006193
-4.432054 5.723112 -0.008359
36.413814 6.430084 -0.041408
10.193152 8.416784 -0.016517
23.315438 -8.736834 0.005876
25.202653 8.475056 -0.015475
25.252112 -1.917846 -0.002175
1.551253 -0.434186 -0.004809
0.932096 0.546624 -0.052588
-17.137500 -8.375467 -0.013604
-17.126119 8.182526 0.025085
14.519475 -0.688488 0.021107
9.972124 -4.264233 0.036518
35.868275 8.295932 0.004625
4.484092 3.556890 0.010238
7.719846 -4.751592 0.000000
-19.653760 9.293703 0.015715
5.647603 -0.217373 2.000000
34.724084 5.439716 -0.039181
-0.030898 9.972001 -0.005156
22.221159 6.755446 0.011243
5.132394 -5.643776 0.005968
37.030214 2.542446 -0.006695
-2.359797 2.077380 0.015313
11.012545 -5.596555 0.031955
34.495953 -4.133530 0.017243
20.377850 3.367021 -0.032765
2.545383 2.209776 0.017279
-18.645818 1.942645 0.014770
19.632816 1.500000 1.183034
3.266989 -0.778524 -0.012828
17.608218 4.853108 -0.011865
35.998063 -8.410237 0.000851
-3.472822 -3.023782 0.000069
15.350980 -1.511488 0.021832
-3.441018 7.666266 -0.006585
6.942266 0.037815 0.029456
4.370321 7.705702 -0.025391
32.069675 9.792028 0.029583
18.738808 7.426167 -0.004138
-4.876439 -0.588152 -0.013203
-11.476303 8.547332 -0.018957
32.442755 -5.139277 0.014007
30.552294 5.907315 -0.008645
12.241465 -7.981833 0.012279
14.275710 -4.307224 -0.015935
15.769768 4.620410 0.017569
-7.535044 -4.692089 -0.009200
12.856966 0.990552 0.010358
30.517641 7.125315 0.002718
-7.644071 -1.590903 -0.002205
-8.651678 -7.812105 -0.032216
4.121633 6.456944 0.006166
5.936277 -9.530013 0.017990
24.864749 -9.236821 -0.030839
28.003264 -7.337768 -0.014619
-8.010745 -1.442997 0.014312
0.896477 -5.498063 0.021872
-8.861198 -6.038700 -0.011509
33.095605 -5.513691 -0.028295
9.500000 3.112551 1.088049
36.655989 7.359868 -0.003152
21.179632 -8.863160 0.002060
11.141937 -2.162057 -0.021601
-2.826542 -5.110243 0.004060
-8.888266 7.932963 0.025678
4.706922 -6.389282 0.030389
-2.888804 -7.328049 0.019775
-11.620925 -0.079709 0.010192
-8.272520 -9.409168 0.007562
16.136187 -3.000000 1.343326
-1.003854 -5.595934 0.014559
5.079953 9.432887 0.064621
23.813303 -0.924687 -0.031886
14.874293 -6.105263 0.028090
28.392713 -3.509167 0.000480
-14.063431 2.485246 -0.001413
0.329409 9.741276 -0.007059
0.753405 6.790354 -0.017311
34.890097 -3.166839 -0.025155
-4.189313 6.289641 0.000381
10.468173 -2.505601 -0.026274
-4.474312 -2.669961 -0.013555
23.729022 -8.461568 -0.020783
2.168723 -9.089027 -0.012810
4.000000 0.108837 1.834186
9.250963 -8.197384 -0.011542
6.966508 6.432307 0.011966
30.505624 3.590627 -0.027442
37.676755 -4.021162 -0.002173
11.537915 9.965422 0.002972
6.526225 1.284754 0.035506
-8.077059 -7.145847 -0.008476
23.361014 0.709058 -0.022708
-12.372862 -6.181487 0.000367
-8.986226 3.656162 -0.000669
10.862995 -6.666607 0.003389
24.250502 -1.224752 -0.022192
26.267369 8.588644 -0.016505
-3.282300 5.375968 -0.019638
21.000000 0.630208 1.236667
37.615982 -1.664788 -0.018717
6.000000 -0.175432 1.984996
-14.402757 -4.124411 -0.001340
-14.682022 3.611897 0.006161
13.407095 0.654839 0.026515
13.564127 2.182570 0.004942
1.335724 6.572134 -0.020725
-10.290076 3.980960 0.016123
-17.583310 -9.513424 0.036781
37.655046 4.677438 0.005832
-18.876517 -6.140908 -0.015036
-12.851560 -1.518911 -0.017578
32.923264 -4.492191 0.014460
1.938967 9.875180 -0.004597
-5.748617 -5.727347 -0.009588
18.517094 9.666348 0.007079
-18.919607 0.199837 0.018446
-9.434211 -1.337664 0.005720
-18.701492 0.200776 0.030442
11.912306 5.022947 -0.034994
4.054163 1.291507 -0.013778
32.669150 1.111584 -0.002340
23.746197 6.089603 0.014392
27.571265 0.630522 -0.024811
17.000000 -2.540505 2.478774
21.112645 5.206984 -0.028517
4.889170 -3.800517 0.004264
10.721403 2.991876 -0.016952
17.000000 -2.821784 0.158877
4.179986 7.459402 -0.001026
-7.071081 -0.777697 -0.007475
36.067341 6.990683 -0.015422
4.000000 -0.146098 0.270555
10.500000 3.297405 1.165494
8.386052 -4.206642 -0.003466
16.064450 -3.306301 -0.001757
18.618027 1.094847 0.018725
7.882010 -4.700000 0.620679
18.459647 5.907278 -0.011781
10.085608 3.500000 0.992459
13.020190 2.938756 0.042915
-1.711212 -7.892995 0.006922
19.000000 0.957980 0.701354
24.499653 -5.561874 -0.008231
34.249821 2.640847 0.036031
36.806037 -5.120841 -0.005392
-3.642560 9.050298 -0.004325
5.853416 -0.408665 0.000000
10.107017 3.116409 0.000000
37.988900 1.519098 0.022884
-10.467259 -3.114256 -0.003283
-9.480340 1.392661 -0.012700
13.096681 -1.243592 3.000000
-17.672033 -5.739956 -0.005536
7.165039 5.468831 0.028574
39.123108 2.046712 0.028219
18.504787 6.393953 -0.005041
4.626513 -6.613526 0.013100
36.701444 -0.125986 -0.008304
-11.257603 -6.987749 -0.011440
4.000000 -0.408193 1.322091
18.346471 5.961189 -0.003878
21.506658 7.412317 0.019511
-17.796309 -8.292335 0.005311
29.512900 5.496956 -0.030305
27.149699 -3.755905 0.023315
1.139623 4.374180 -0.007323
6.893595 -2.418350 0.025777
8.902329 -7.006668 -0.030065
15.405604 -0.343990 0.027660
-18.051121 7.397763 -0.043687
5.760567 2.633166 0.014088
-16.667166 -5.596022 -0.004135
-1.714345 8.212191 0.018359
-2.648411 6.328308 -0.009438
-15.196196 -6.156708 -0.017331
2.989868 3.640070 0.004223
16.982776 7.774687 -0.010526
16.308687 7.642756 -0.036691
8.893204 6.583053 -0.009920
36.584550 0.293271 -0.011915
35.416160 1.632091 0.023322
-11.378742 5.360163 0.013014
6.921617 -4.660761 -0.015284
2.000031 -2.314205 0.007809
29.180620 1.878023 0.007433
-19.443990 -9.612734 0.030283
-19.927783 7.777058 -0.033986
18.011783 9.055591 0.013923
25.721963 3.998644 0.001063
20.114089 5.883857 1.671276
32.189441 6.500821 0.008675
-17.182042 2.987334 -0.008465
26.974249 -6.985091 0.024024
36.987226 -1.254537 -0.018723
18.738383 -4.289598 -0.010375
-19.911571 4.094800 0.011873
24.387700 2.202498 0.010741
-13.255717 4.667531 -0.008438
-9.476580 6.348082 0.010280
11.008036 -0.948599 0.013100
39.139591 -2.595516 -0.025752
36.004799 0.122339 -0.002935
30.706338 1.408308 0.031139
-13.911707 3.157048 -0.029784
31.868614 -8.761595 -0.011944
-3.733294 0.095831 -0.036208
34.861548 7.841604 0.015585
-17.624266 -6.946114 -0.026262
-3.557132 2.880994 -0.006246
19.292604 -7.230053 -0.012891
-1.180345 2.333664 0.021103
22.039470 2.678827 -0.002875
-13.749756 7.225596 0.034043
21.587931 -2.340874 -0.013704
-16.252544 -1.878033 -0.010839
29.694955 5.600415 -0.029039
12.253889 -5.294192 0.017985
-7.044464 5.018463 -0.004792
28.920510 -0.311124 0.009589
-13.512599 -3.852034 0.009009
5.725085 9.069586 -0.026610
32.054802 1.524473 0.011595
4.214224 -8.511262 -0.005456
4.142080 -5.471213 -0.005957
26.847271 5.077277 0.029560
17.743456 -4.645287 -0.008138
19.324427 6.183714 -0.003853
-13.140613 -6.297935 0.005326
13.576851 -1.000000 1.859136
4.175326 0.068085 2.000000
16.269339 5.513456 -0.003808
-15.964645 -2.458163 0.010290
30.568083 3.982231 0.036359
-11.450267 7.459723 -0.011541
-18.804070 -3.013281 0.012138
-8.095956 -3.804449 0.025975
2.967046 -7.001169 0.005500
17.778474 2.819120 0.014029
1.392529 5.042988 -0.037312
19.632225 0.961765 2.000000
-16.641183 -3.834016 -0.010924
15.696396 4.979013 0.001772
17.646737 7.205315 0.028463
31.707137 -3.145315 0.031128
-12.323004 2.278961 0.028041
-4.542080 -0.561300 -0.017910
20.876712 -5.755222 0.036430
28.293130 9.737416 -0.010382
-5.398729 -9.206966 0.003764
-17.824706 3.125541 -0.016311
-6.143500 -7.024510 -0.000824
24.402157 -8.427849 0.029142
-18.482515 -7.809035 -0.008036
9.991537 2.576536 0.000000
8.887775 0.317899 -0.020031
16.780462 -3.000000 2.981900
-2.522375 5.792838 -0.011159
-0.834674 -1.145271 0.032450
12.690109 7.559930 0.010832
19.812242 -8.018887 0.003241
-3.511638 6.034957 -0.014085
-8.162701 9.561406 0.015811
-1.857199 5.320024 0.031358
11.828928 7.613588 3.313525
14.945359 3.040732 0.000830
19.430590 6.626835 0.005830
6.000000 -0.289016 0.044066
13.211853 -1.154530 -0.004016
4.000000 -0.107415 1.585702
22.467516 3.900709 0.012455
24.004111 2.172860 -0.001753
11.084650 -2.233877 -0.021630
35.953293 -9.259238 -0.017900
12.400715 -2.483811 -0.005111
-16.620003 -5.580610 0.004338
11.309983 -2.325470 0.000516
15.386776 3.170293 -0.011606
36.617839 6.013004 -0.040848
27.955958 -3.558613 0.015246
3.546706 4.596099 -0.045482
-8.037186 5.186267 4.952776
-5.235551 4.387862 -0.018213
31.682200 -5.667356 -0.000118
-17.205203 -0.870166 -0.024751
-6.708371 -5.601556 0.018048
-14.861320 3.387549 -0.007534
-1.806827 6.773028 0.005789
15.543598 -1.361420 3.000000
4.393690 3.514335 0.014825
1.247838 -5.126759 -0.007656
28.889507 -0.140320 -0.016027
13.775015 -6.376140 -0.058100
-14.284276 2.699815 -0.002527
14.991247 0.751916 -0.016315
36.642550 1.966525 0.018649
24.762693 -7.012934 -0.013982
27.006128 -2.160386 0.054787
-0.841182 -4.211650 0.043935
4.590392 2.439885 -0.009761
16.157975 -5.208791 -0.022016
20.890010 0.811892 0.000000
19.190591 0.690180 2.000000
-4.523502 2.461428 -0.002482
17.901387 -6.767537 -0.008216
9.511412 3.132545 0.022832
13.000000 -1.736527 1.677227
-9.862578 -0.434542 -0.007929
24.044555 -6.795154 0.030604
28.570964 -2.710602 0.026660
25.369800 -9.908239 0.020549
27.394720 7.794089 0.002344
-16.108784 -8.010165 -0.017136
35.051484 -3.904157 0.014751
39.983925 -6.248798 0.011759
-6.667975 -5.791530 -0.015689
18.927770 -0.969082 -0.008004
12.277578 -2.587013 -0.009238
7.700000 -4.946109 0.521942
35.598964 -2.138457 -0.009033
-12.955756 -5.729441 0.008156
36.468420 -4.937970 0.007295
34.027424 -9.016037 0.030416
25.840758 1.088616 0.002348
3.708947 0.424844 0.016504
27.171915 -8.825097 0.011339
-12.550389 4.686718 -0.014858
-10.609526 0.211736 0.020432
19.799071 1.490345 0.010417
7.633960 4.334466 -0.007600
18.951357 -3.031813 -0.008599
4.622975 -9.514941 -0.006303
38.537984 -5.838049 0.011046
-18.342215 4.649261 0.024338
-4.676158 -3.360958 0.013159
39.793246 3.401805 0.001318
33.856841 4.714252 0.005192
14.365196 5.644929 -0.023949
16.244326 -4.541024 0.000950
27.533022 -2.342717 0.013164
36.089322 -8.313649 0.021065
17.836508 -2.799217 0.010881
17.743684 -8.372053 -0.026535
-18.409321 -1.903737 0.002714
-19.402782 -9.230900 0.044795
25.672691 -1.748536 0.013403
0.341787 2.925454 -0.008138
15.420861 5.213894 -0.002659
-18.885757 5.224904 -0.005468
37.730353 4.574174 0.006367
-12.350680 -2.632953 -0.027712
-4.828513 6.577236 0.014042
24.507000 -5.137331 0.009112
-14.107467 -8.877841 -0.020094
14.984617 -2.272786 0.000000
-5.092124 5.501012 0.008633
-13.268086 3.863665 -0.011067
2.093811 0.427080 0.010494
10.341231 2.789215 0.000000
2.806360 5.053316 0.009357
17.652189 -5.914715 0.003407
15.810571 3.838077 -0.002066
-0.794413 -8.345470 -0.043186
20.896395 0.083792 -0.014537
35.430797 -6.279365 -0.007953
31.318868 -6.531410 0.025452
-0.611303 -6.466832 0.028425
-19.279818 -1.899570 -0.014077
-13.844926 9.859679 0.025407
31.879535 0.487105 -0.015434
-0.760116 -4.971004 -0.026475
26.418409 5.699938 0.012556
25.470778 -7.490696 -0.014500
9.359850 -6.445571 0.019297
5.442642 0.410330 2.000000
10.238403 2.500000 0.930866
26.034004 -9.913334 0.000911
22.968104 -0.452899 0.012285
29.166285 -2.599849 -0.010784
38.425807 1.915540 0.041304
16.632246 -3.936906 0.039772
32.314839 8.893393 -0.009625
21.839546 -7.446190 -0.040700
25.563706 -3.499438 0.049429
37.995446 -2.958777 0.017552
29.946558 8.998152 0.013698
10.529287 -8.406138 0.009140
8.641024 0.802259 -0.020445
-11.350396 -4.876991 -0.041869
-5.486402 8.021688 -0.026271
36.457947 9.059141 0.005117
39.095747 -0.460882 -0.001883
2.922090 -0.275828 -0.028184
-5.439719 0.471929 0.013781
-9.861845 6.961741 -0.003910
-7.840585 7.153081 -0.009578
6.282645 -9.659552 -0.048818
33.915815 -6.201729 -0.032213
29.407214 -0.760665 -0.019411
34.005809 -8.606589 0.010617
36.901824 2.828749 -0.008854
-19.049716 3.256219 -0.012372
2.173145 -7.777564 -0.011590
4.174577 -1.376075 -0.007180
17.095286 0.442089 -0.031922
-0.847338 4.107072 -0.004999
15.019367 4.977805 -0.002207
1.371830 1.380170 0.024091
33.671275 2.521163 0.006226
-14.030226 3.827158 0.010937
6.894331 -7.970243 0.033444
31.122197 -0.353543 -0.004414
36.083795 -8.527450 0.005501
15.236230 -3.000000 1.780699
23.429721 -6.891943 -0.025528
13.946893 6.855455 0.002239
29.125846 2.442491 -0.004111
20.245601 -4.695044 -0.014521
-10.351517 3.235739 0.019826
-11.446607 5.428180 0.036916
18.245794 -3.705435 0.005476
13.032718 4.969858 -0.025995
-10.068816 -3.498183 -0.028643
-9.630797 2.523376 -0.020474
-3.506261 -0.153457 0.003558
21.005765 2.648186 0.005698
29.124279 -0.952386 0.001381
-16.270884 -9.056913 0.016635
-18.088594 2.031135 -0.032463
10.415926 -9.956823 -0.017753
23.374006 9.918206 0.020829
-9.521668 -8.727307 -0.006789
17.204365 5.373362 0.003246
35.241484 0.720968 0.021085
32.846327 -4.722149 -0.036568
3.776636 9.940348 0.025141
14.138202 1.860185 -0.019145
-6.448269 -0.545344 0.016636
-6.165497 0.861125 -0.003753
-13.990700 -7.171928 0.028103
26.604842 3.742877 -0.023149
-9.893567 6.917098 0.019526
0.961912 3.709844 0.001769
-15.067905 -9.310248 -0.033593
21.568072 -8.702677 0.045675
5.858984 -9.898219 -0.025162
-7.744612 -4.899436 -0.003820
-9.766377 -6.086200 0.017712
-16.057482 0.744638 0.017997
30.042536 1.679258 0.011268
39.507181 9.642228 0.014504
-5.880467 2.555850 -0.011370
34.144782 0.086737 0.008262
38.136664 2.478478 -0.013074
-12.063877 -6.576713 0.043742
2.468674 8.748585 0.013527
-8.032239 -8.347651 -0.008480
-15.919386 4.453363 0.004734
7.267810 -9.231070 -0.014906
-13.899386 -1.131129 -0.008091
-11.001736 5.284657 -0.042218
36.440755 -6.940124 -0.032310
37.122395 1.305317 -0.027065
5.586628 -7.024313 -0.025787
-11.826333 -2.565778 0.038668
-13.714169 -8.508662 -0.004103
-7.336647 2.400300 -0.017273
32.695521 8.511703 -0.036974
16.401359 -8.972007 -0.038020
-4.803746 4.164275 0.021790
30.084277 7.431481 -0.009667
28.307153 -2.672858 -0.021814
-8.410087 7.726644 0.033594
-18.104831 -7.726300 -0.010245
-9.060246 0.696875 0.001920
-8.462440 8.445395 0.013455
-4.883587 -0.884222 -0.006363
-0.474903 1.675712 -0.002623
4.000000 -0.264754 0.245769
-2.867424 -5.789577 -0.007778
10.449700 3.280540 1.500000
-7.489637 -9.547807 0.027955
5.636902 -2.656569 0.021767
34.860427 8.551317 -0.011180
28.159375 7.754927 -0.035280
17.360295 1.249399 0.015559
19.258379 8.933972 -0.021298
36.602783 0.113181 -0.010503
18.734331 -7.902820 -0.009639
-5.777509 7.505569 0.013499
19.000000 1.277131 0.922041
28.086502 -0.912284 0.001023
26.946498 0.879359 0.016511
16.502977 -9.060026 0.005311
-8.252532 5.397672 -0.005493
-15.292651 4.327459 -0.038506
8.542001 4.944284 -0.004321
23.906566 -5.762069 0.006020
9.697128 -0.465283 -0.019348
9.165718 7.495827 0.006281
37.685879 2.306010 0.008154
14.532970 -9.986191 0.038994
1.499376 2.962530 -0.005212
23.725687 7.970263 0.008962
34.929298 -5.914728 -0.025843
4.494251 8.151096 0.024135
-2.919516 -6.440559 -0.009998
-14.832072 9.665522 0.008154
29.019003 8.292097 0.004714
1.592681 -9.204970 -0.008401
-17.042020 -0.328895 0.006666
19.000000 0.668292 1.830893
20.405946 -2.114226 0.033893
25.936797 1.737279 0.007230
10.064219 -7.927675 0.021572
26.289092 1.276483 -0.019685
-12.605224 4.407475 -0.033864
10.253192 -7.489904 -0.010650
-8.480944 9.290580 -0.026972
11.904564 1.948481 -0.030637
15.007417 -2.213261 0.000000
-15.667209 -3.114769 0.005820
1.317038 -2.769192 0.030995
27.876806 -1.808620 -0.001499
-0.582905 -0.515182 -0.002328
8.425609 9.211144 0.039847
31.601005 -4.427597 -0.028294
-18.684167 0.189291 0.005543
32.902699 -7.247173 -0.005858
-19.017934 -2.360816 -0.012385
-1.330905 -0.639174 -0.031003
33.731394 -8.305718 0.042936
-2.600756 1.901521 0.004523
-12.006218 -7.831686 -0.030261
-2.627435 8.721262 0.021995
15.994676 6.584672 0.016753
-0.994299 -7.733176 0.015424
16.013117 -1.958155 0.013474
26.676598 6.184825 0.017956
13.273643 -9.919480 0.029642
-18.488395 1.555635 -0.000484
4.933600 0.410503 -0.010782
35.437295 7.926799 -0.007237
36.011459 -5.592496 0.037694
21.005595 -0.211786 0.033730
-2.569805 -2.123789 -0.010913
10.564112 -1.731026 0.034861
24.205381 4.475775 0.009010
28.883042 3.370049 -0.193357
-9.787122 -0.801025 -0.000635
-16.204795 8.688014 -0.017589
0.505456 -6.727135 -0.004066
23.999675 2.143798 -0.011923
20.578701 1.500000 0.839435
32.965228 -9.746025 -0.013906
-0.519867 9.011369 0.008667
37.901897 4.130459 -0.021584
5.116436 1.317145 -0.023603
-19.513508 -4.161381 0.023193
-19.775294 6.329184 -0.013091
-18.224949 1.054463 0.034300
10.646979 0.180746 -0.001402
12.482465 4.714267 0.021740
-12.224928 6.725507 0.010895
-3.839480 -3.137781 0.005409
29.949206 4.583218 -0.019832
18.270651 -2.952217 -0.011617
-18.606397 -9.256937 0.001552
21.758452 0.526647 -0.022278
33.426324 -1.210919 -0.507940
2.459534 0.787036 0.001090
36.264248 1.930527 -0.000271
25.731251 -9.738313 0.023850
8.304390 -5.556019 0.005514
24.289045 1.591929 0.022280
25.218957 -1.315875 -0.009922
37.459388 0.121587 -0.029119
22.909884 0.298106 -0.018415
-15.529372 7.683408 0.004870
23.046067 -7.094655 0.025266
-5.409946 7.364326 0.016050
-12.009072 5.779909 0.005224
15.452315 9.380811 -0.014277
11.776291 -8.374824 0.036270
21.929235 1.914645 0.014755
25.466594 -0.413499 0.008527
20.815742 0.500000 1.712262
16.600445 -6.550019 0.003789
20.965415 -7.287010 0.029982
19.417309 1.161931 0.015981
23.380539 -2.548337 -0.001745
-18.922528 -6.685790 0.009498
-16.058308 1.929028 -0.006715
5.094582 -1.086500 -0.027798
18.180659 -0.796691 -0.009048
-2.150440 -3.611640 0.021223
34.223799 -9.814102 -0.008386
30.723217 -6.979997 -0.014048
1.726731 9.396450 -0.013307
-16.006116 -0.740804 -0.024796
-0.394659 0.746728 -0.035179
-2.136809 -3.451470 -0.004492
-5.681019 -8.319587 0.007332
-6.170310 3.813882 0.014775
26.746155 6.919917 -0.018364
-0.178539 -9.407721 -0.040834
11.674590 -5.904435 0.033149
-5.169515 -2.418290 -0.005625
-7.224443 5.235045 -0.020836
-8.466080 6.531154 0.002239
-13.968178 -5.080942 0.037509
4.655154 -0.500000 0.976173
-8.928739 1.688609 -0.007483
1.688700 -2.913439 0.037203
32.743720 2.717978 -0.017487
18.195642 6.968665 0.017161
-1.766746 0.288203 0.016121
25.854737 9.852764 0.009791
15.439314 -0.478500 0.023449
10.468304 8.360172 -0.018861
22.100495 -9.205556 -0.007946
0.135173 8.339982 -0.015633
20.485782 5.845819 -0.001974
36.344109 3.512893 -0.006519
8.498022 -7.849938 -0.008897
36.797905 -1.692332 0.004775
33.643277 -2.801982 0.007738
-13.770375 7.923533 -0.011158
-12.809560 -1.835396 -0.006201
-4.746498 -2.060759 -0.032804
29.037866 -5.205040 -0.008992
-11.444351 5.792321 0.010414
23.552461 -4.225646 -0.005673
33.645658 -9.835063 0.007229
19.000000 1.426631 1.263714
16.841872 8.337517 0.016933
-15.685597 -1.162808 0.018459
-0.303662 -2.781121 -0.006321
-9.709411 5.857640 -0.001653
0.380580 2.217493 0.005056
38.473671 0.074944 0.005346
1.851682 2.977221 0.002913
-7.051329 7.282256 0.011158
21.954564 7.918830 0.015065
-1.227025 -0.229243 0.016572
31.177367 -8.066050 0.002260
2.681864 2.577685 -0.023314
13.099139 -5.667289 -0.000580
31.417008 3.619432 -0.016299
-8.112155 -8.329006 0.019600
-11.075940 -7.894934 0.025995
10.054727 2.500000 0.513050
38.976695 8.021797 -0.032720
6.000000 0.383969 1.698169
-7.280357 -6.173399 0.034392
16.239936 -5.125526 0.034621
38.715265 2.618647 0.002669
31.587680 -8.374832 0.014106
3.948500 3.693939 0.018697
9.337056 1.361841 -0.010341
29.612729 -4.214224 -0.027609
21.000000 0.923381 1.846691
29.965520 -8.898201 0.023342
31.427077 8.557382 0.024692
31.071825 8.956747 0.000975
1.331788 6.758304 -0.002039
-13.785406 0.659463 -0.013733
-7.475448 -5.663222 -0.047193
20.631406 -7.918346 0.024381
34.573095 -4.197726 0.031166
37.783847 3.475284 0.009878
4.329178 -0.500000 0.533960
2.068975 2.461946 0.013423
35.136085 -7.023362 0.005054
16.947388 1.309946 -0.004969
10.254948 3.490264 0.000000
14.136998 -0.702897 -0.000953
16.028372 -3.871799 0.010725
-16.666252 6.849826 0.030517
23.566364 -1.930761 -0.014919
-5.623711 -8.027401 -0.014021
9.571875 -2.029350 0.015233
-2.485330 3.414376 -0.016219
-18.271076 7.629483 0.005127
-15.424906 5.430917 0.010196
-5.135830 4.567689 -0.003572
28.683173 4.627221 -0.005909
36.954438 2.614949 0.001192
-6.020477 -5.005990 -0.008032
-16.088432 -3.913178 0.008747
33.216036 0.764087 -0.003053
-3.692375 7.894938 -0.013274
27.672052 3.907588 0.006975
26.453331 5.940560 -0.009386
25.076387 -8.889078 -0.011978
-10.680202 0.594292 0.008270
18.201575 2.253979 -0.024222
32.365230 8.535817 -0.000162
33.455037 8.106223 -0.005142
-18.674375 -9.354614 0.016074
27.987002 -5.902011 0.024111
19.084022 -1.027777 -0.005734
-1.035217 4.607867 0.003410
12.905150 1.191763 -0.029255
-3.899116 0.538967 -0.016449
18.040046 0.381999 -0.024032
13.833575 -0.365118 0.009945
34.956580 -8.128244 -0.025213
-6.054869 8.302964 -0.004903
-7.228954 3.720190 0.010487
3.837478 3.418212 -0.017619
-13.422308 -3.303918 -0.004103
21.083870 5.508793 -0.036001
11.493417 -2.968941 0.007025
-3.547544 -3.300183 -0.010154
-12.542167 9.015361 0.019824
32.108079 1.807995 -0.000222
-1.571003 -2.640551 0.011478
11.845551 -9.295422 -0.002189
-14.752991 -5.689454 -0.008598
-0.707018 5.122801 -0.009907
38.553171 -7.209569 0.022613
19.136867 3.911727 0.000766
8.375207 -1.792375 -0.009899
25.797111 0.604374 -0.012391
-2.590782 6.982561 0.014840
26.216755 4.683072 0.000834
-15.538005 -5.122308 -0.020144
15.266108 -2.678340 0.018008
-0.040604 8.484757 -0.038513
3.241509 -1.355184 0.003903
14.933004 -1.636593 0.000000
-19.420024 -3.920773 -0.015699
-18.350888 -0.380924 -0.015297
-5.065177 1.125824 -0.018114
36.492175 -3.110109 0.007850
16.445726 3.852846 -0.000503
-1.078175 -3.055465 0.001601
-10.911073 -4.573712 0.046884
-1.654431 3.672659 0.027064
30.130609 7.588949 0.044110
34.493709 -0.476798 -0.004199
-7.776652 9.295620 -0.006529
37.247898 -6.092291 -0.000075
18.241249 1.585980 0.007750
20.243544 -8.799865 0.015476
20.195581 5.044315 0.017138
18.536690 -5.529252 -0.013195
1.042140 0.224886 -0.023977
-5.597695 5.321707 0.043760
-1.549834 -5.141892 -0.041471
27.552386 9.287892 -0.011877
37.889388 2.342541 -0.003898
23.116224 -5.541871 0.012378
37.724523 5.254589 0.010399
-1.848674 -6.184542 -0.005124
-2.946449 -9.246405 -0.002840
11.544875 6.907318 0.009523
7.015912 -0.365329 0.024316
-8.070288 -2.732324 0.038736
33.526721 -4.999519 0.021136
-17.986449 -0.780515 -0.016755
-4.779431 -4.318982 0.023258
-8.777375 4.970700 0.008682
19.000000 1.220702 0.996484
29.996421 -4.822601 -0.026718
27.570672 9.910655 -0.001585
38.428025 0.311412 -0.042132
-14.703308 -3.202160 -0.015623
-15.945768 8.905911 0.002926
-8.995729 6.401156 -0.019961
-10.327255 5.175229 -0.001227
-7.882552 -8.253126 -0.017011
3.861065 0.441590 -0.002347
0.805604 7.957230 0.009939
19.000000 1.244576 0.813420
-15.728681 -0.588058 -0.024831
-1.863398 7.541492 -0.006240
37.086690 -7.844235 -0.000948
27.035016 5.249281 -0.000769
18.066396 7.257252 0.012388
-1.341619 -3.799491 -0.018211
-6.814982 4.138016 0.023022
14.244625 -8.716971 0.024462
4.044115 -5.060268 0.022463
14.475775 -6.206401 0.028194
39.090472 4.307895 0.013488
10.163279 7.553565 0.007559
-14.845377 0.225484 0.018115
0.069600 2.815273 -0.014346
-2.645314 2.729307 0.016461
3.745036 9.110060 0.016941
1.553868 8.847967 -0.014037
-16.901492 -6.800968 0.017296
34.270248 -9.993535 -0.003252
8.060873 6.689429 0.002257
36.597904 3.164080 0.036841
16.282588 6.457202 -0.006143
19.095556 -5.589059 -0.015271
-0.605193 3.962385 0.006458
-0.141436 1.213696 -0.017460
3.946116 -3.546084 -0.017912
-16.290857 1.051839 0.005829
2.974984 -0.430600 -0.033009
-0.533706 -3.716105 0.013517
-18.199371 1.488399 0.034146
9.462017 -6.571828 0.000666
-7.983079 -5.240797 0.002703
-4.224545 9.568817 -0.008881
17.471081 -2.308538 -0.006442
38.511545 8.527919 0.006026
-18.555340 3.631451 0.001400
11.082753 -4.150999 0.024911
-4.178105 -1.212662 -0.006452
-9.882307 2.980466 0.002076
-14.080557 0.665692 -0.017661
7.508057 -0.747981 0.012006
16.722825 -4.248778 0.024173
26.606096 -9.010936 0.008183
14.482192 7.749906 0.016410
8.069750 -5.270007 1.000000
-8.050586 -2.708108 -0.003632
-19.110190 -5.747195 0.004590
30.114733 -1.351065 0.005437
-17.879537 -1.354885 0.025986
-10.601949 1.785070 -0.012157
29.000724 6.191802 -0.024414
-6.877063 2.281254 0.013487
30.575681 9.989102 -0.007168
-18.630756 6.932794 0.002983
5.387092 7.201777 -0.010438
15.386263 -9.007468 0.005431
4.298115 2.156916 0.001014
35.086538 5.580373 -0.032562
4.428235 0.500000 0.337508
21.181996 -8.519432 0.003740
10.091078 7.918506 0.024712
15.133431 2.846290 -0.017201
24.728022 0.244916 0.025955
9.448435 -4.117116 0.027313
1.073021 -2.880857 0.020215
-4.319185 -2.094328 -0.000437
2.928368 -7.171935 -0.006849
1.832824 -4.527845 0.055562
14.640504 -0.267562 -0.017580
-18.312710 8.302695 -0.022739
18.564013 7.758576 -0.006082
-18.435003 8.556220 0.008652
10.382300 -0.027125 0.016959
23.718531 6.901601 -0.016196
18.138407 -1.882245 0.025222
-10.591238 1.530602 -0.024568
37.691008 5.501533 -0.017831
-16.529333 1.534823 0.005443
-14.989957 1.973405 -0.014736
-1.107336 1.198039 -0.003868
38.514672 4.448991 0.022315
-6.210396 1.972005 0.011363
-10.586503 1.573245 -0.033971
9.852391 7.639153 0.027761
-4.360017 7.770094 0.008007
-11.024618 -5.837494 0.001811
28.874483 -8.421759 -0.001331
9.644355 -6.615531 0.017046
18.352110 -5.302112 0.006108
7.922180 -5.300000 0.241002
31.479713 -5.243885 0.006055
22.606654 8.613656 -0.008121
-15.979008 -8.154111 0.022446
10.500000 3.410525 1.280405
19.746265 -1.573398 0.003503
-4.390533 4.979593 0.004381
13.209097 5.012352 -0.000881
18.890083 -1.526508 -0.037673
-13.932489 -1.541508 0.024992
35.049151 6.969980 -0.021716
33.175683 -7.877334 -0.002884
24.435652 -4.209724 0.012154
-5.251769 7.970482 -0.019548
21.884522 7.486796 -0.027579
25.276382 0.712966 -0.026442
19.733929 0.242934 -0.019000
17.575556 1.415484 0.005015
-6.619242 9.805374 -0.002903
34.147212 6.855397 0.019915
22.451369 7.719116 -0.038944
17.369135 -8.941024 0.002961
22.845221 -4.670022 0.018327
14.447262 -2.377341 0.000000
-3.415901 -4.643594 -0.006167
-19.226152 -0.183303 0.005435
11.553578 5.392637 0.000817
-2.943878 -9.032054 -0.021825
14.571636 -2.880888 3.000000
15.306630 -3.708551 0.038887
9.806571 7.009173 -0.009843
-13.305860 -2.956104 0.019895
37.874811 6.869599 -0.022915
-2.159375 -1.786167 0.036861
-19.078025 -0.161873 0.002955
2.344274 -5.545967 -0.000032
33.348698 -7.342883 -0.017705
16.218671 -1.475573 -0.007204
-5.072493 -8.329084 -0.007265
28.192727 3.202870 -0.013361
-8.536272 9.598701 0.020335
0.959622 6.259965 -0.018500
26.065877 8.374939 0.018234
26.975417 -5.036662 -0.035310
-18.524785 -4.205489 -0.046261
13.201474 -3.000000 0.528472
36.868301 -6.318692 -0.014652
-0.253075 -5.571456 -0.029247
35.093683 -7.526322 0.017140
9.500000 3.414784 0.544364
-7.028686 -8.677938 -0.007129
-16.180200 8.484902 -0.017075
16.021281 0.138591 0.004657
-7.056591 1.733284 -0.058245
-5.037453 -8.318995 -0.006090
18.237139 2.996955 -0.006000
6.701121 3.248197 0.029993
5.527788 -0.354999 0.000000
9.872151 -4.620132 -0.006451
-13.376346 -4.092562 -0.013982
10.859589 3.089688 0.003916
1.624951 1.570416 0.019787
-4.865647 9.821333 0.033673
20.858645 -6.378242 0.006655
-18.699199 -1.403617 -0.005114
-13.422501 6.548785 -0.026773
34.133217 -3.052645 -0.024422
6.364299 7.889052 -0.013875
-15.700963 -6.949714 0.014156
21.687346 3.172311 -0.022362
8.229415 -4.700000 0.127438
-5.521901 -2.844934 -0.031374
9.464077 2.287317 -0.005688
-9.806776 -9.294437 0.008867
-12.219261 8.697277 -0.038469
-1.349231 -3.272140 0.009408
17.855307 -8.181075 0.028366
-6.634047 4.608603 -0.008224
19.126500 3.979532 -0.016378
25.228292 3.387363 -0.022110
-11.001379 -4.027278 0.012771
17.000000 -2.324222 1.567443
-17.723016 -5.231149 -0.000473
16.397335 -2.842921 0.017585
-16.193026 6.220988 0.034356
-13.891779 6.096856 -0.007149
35.312728 -2.111090 0.014511
34.771521 -5.076763 -0.001299
-16.263614 -6.079405 0.010559
19.116625 1.004686 0.000000
32.647652 6.104646 0.018155
34.050219 -9.417084 -0.029480
17.551967 -3.168616 -0.042846
-18.201585 -5.697862 0.043329
17.331915 7.460955 0.030324
12.669818 6.491558 -0.010825
15.385171 9.291179 -0.017278
13.801783 -6.832082 -0.006133
-19.925394 8.098379 0.014979
12.275382 7.338777 0.006205
5.010494 -0.500000 0.450419
32.573398 5.607185 -0.010557
10.244650 2.500000 0.744026
-15.337252 -5.986639 -0.011235
-19.102328 -9.776858 0.028408
39.828221 -4.089643 -0.003935
20.903706 -6.830219 0.013880
13.904427 -4.216635 -0.028637
33.466189 -4.001876 0.041152
5.652924 -0.203005 2.000000
7.700000 -4.755984 0.046631
35.817756 2.476375 -0.006291
32.085890 -0.445001 -0.046338
38.027271 -5.330497 -0.015379
-2.036265 5.588868 0.019947
-10.117619 -3.012611 -0.011815
-13.812568 8.597330 -0.019454
25.713394 0.082498 0.004667
16.630559 0.491068 -0.009568
29.589962 0.657214 -0.014628
-17.459930 1.295031 0.027347
9.461186 2.470633 0.003969
6.035661 2.874659 -0.023709
19.680892 -0.575939 0.026676
30.791172 -2.029479 0.029524
10.500000 2.910606 0.672135
20.257482 9.714505 -0.021340
10.163223 -5.460201 -0.026559
12.881984 -1.183829 0.013224
38.952926 7.494098 -0.033752
9.868750 -2.966356 -0.007973
-0.002008 2.851493 -0.003254
19.000000 0.693123 0.684702
-6.970787 5.337166 -0.014396
9.086684 1.198360 -0.007396
7.397739 -9.840998 -0.024461
22.794687 3.693433 -0.059319
32.188742 2.995074 0.047598
1.734126 7.602203 -0.035911
-3.352119 7.896315 -0.007411
7.980115 -4.991057 0.000000
-9.446583 -6.520655 0.014049
4.365976 0.500000 0.514930
10.192565 -6.737298 -0.020411
-18.853034 3.025084 0.009129
13.490271 3.475550 -0.010612
28.496093 8.691394 -0.012626
6.000000 -0.223456 0.135600
-17.591134 -7.705333 -0.024097
5.519763 -0.391523 2.000000
15.038479 -0.912998 0.031814
17.553413 -1.736263 -0.021493
4.601291 2.542173 -0.002855
26.533890 -4.298447 -0.012395
-10.055109 0.161615 -0.017285
34.572314 1.316578 0.006789
3.276105 5.314668 -0.033429
-1.456745 -8.677083 0.004235
-0.350159 2.170275 -0.024837
18.840528 -7.407620 0.014870
17.935857 -1.823388 0.005857
-18.846098 -7.871425 0.027687
10.597270 3.166684 0.006603
9.924360 -7.646782 -0.039241
3.021244 -9.431221 0.031481
-19.731231 -5.965633 0.011420
-16.266550 7.217563 0.024274
22.158368 1.619278 -0.011007
-19.136391 -4.960169 -0.017430
38.148497 -5.558698 -0.015005
1.578309 4.841138 -0.029079
4.520559 8.292269 0.011130
22.859078 8.001163 -0.023245
24.306953 3.497754 0.033848
33.731207 2.995119 -0.006594
34.211874 4.068923 0.010197
0.126604 2.535333 -0.013490
23.412074 -3.108544 -0.016741
-4.868290 4.363500 -0.012243
7.377979 -1.482422 0.004236
-12.661741 -4.471659 0.022573
21.868282 -5.923371 0.003673
4.726741 -3.442988 -0.026788
2.193318 -1.860779 0.004572
14.766052 -2.813096 3.000000
-5.131253 4.332087 -0.029041
-4.857651 2.519532 0.011139
-16.045181 -8.566370 0.012813
30.233149 0.319452 -0.043176
32.270220 -9.915882 -0.009496
3.333870 -1.881116 0.016465
19.899127 4.802295 0.003635
-8.060472 -7.283844 -0.052665
5.899106 -0.403227 0.007896
19.569403 6.625272 0.020543
-9.219013 -7.727322 0.007502
-13.162047 -0.287029 -0.001562
28.354339 4.075298 0.009322
14.880353 1.012720 0.004106
3.577098 -9.931568 0.027376
35.489296 -5.477561 -0.026135
-17.301132 -2.586615 0.009363
2.575560 8.274520 -0.027269
-16.105598 -7.215818 0.002327
8.913474 4.489352 0.007662
-12.859677 5.876955 -0.012824
15.580898 -6.929761 -0.015120
1.227350 1.329557 0.016736
32.751423 -4.700293 4.972295
34.576133 4.758806 1.291189
-5.568105 -6.479496 -0.000862
17.000000 -1.320065 0.308799
35.220014 -7.670417 0.001969
-17.890445 -2.345071 -0.026153
33.658174 -2.794400 -0.007140
14.461304 5.952958 0.009335
-15.217096 -3.799821 -0.018833
14.797719 9.306309 0.006476
29.310359 -8.691150 0.016980
-8.785562 -1.636176 0.038146
24.104263 -2.860524 0.005179
4.540464 -2.228894 -0.046039
5.749903 0.500000 0.954272
31.337661 -1.599446 0.004964
37.046362 2.996441 -0.022319
-15.760472 6.824192 -0.033857
10.148460 3.500000 0.838683
5.009813 2.024618 -0.020382
29.865064 -2.311389 0.031954
-1.276157 3.748173 -0.050759
9.911567 -8.662166 -0.027045
20.333523 3.601191 -0.028830
-6.081893 8.708945 0.011456
34.470311 3.479555 0.020007
-5.567895 -8.175450 0.016930
-11.388820 9.727363 -0.004148
7.790416 -4.700000 0.875360
-9.409735 0.231814 -0.001024
19.000000 1.135840 0.826232
28.024001 6.996999 0.052852
25.304092 4.745006 0.004052
28.574807 9.692528 0.007581
9.817809 5.583324 0.016608
-2.240442 2.904601 0.011468
5.869810 -9.204316 -0.017133
0.256910 -3.839782 -0.001807
-14.659809 9.702541 0.003854
-17.948273 -9.183961 0.017090
-12.344526 1.360970 -0.005379
-6.731143 1.440216 -0.019463
10.147899 2.882003 1.500000
-11.189110 5.295575 -0.011164
39.157618 9.363590 -0.004276
31.986927 0.097195 0.003129
-1.466144 0.977844 0.022618
0.525700 -5.686168 -0.017528
1.240297 9.650090 0.011036
10.151901 0.745547 0.029493
-15.381700 7.225082 0.001333
21.348601 0.111900 0.014977
7.700000 -5.110358 0.298292
-16.714173 -3.038550 0.003419
28.284224 9.500097 -0.005906
12.625747 3.667654 -0.006661
38.289523 0.348186 -0.016051
-3.580025 -5.231415 -0.004404
4.947334 6.720054 0.046764
-5.275364 7.475731 0.013138
7.865666 -4.840314 0.000000
26.282247 -6.101628 -0.047237
-6.476366 0.637214 0.018887
-9.545994 -8.126530 0.016537
14.890499 -3.792183 0.027995
-16.660031 6.694194 -0.005986
22.927058 -9.871131 0.018767
-3.164587 -5.853922 -0.012859
8.558558 4.741266 -0.004942
-7.499458 7.180668 0.000781
28.687956 -5.150443 -0.014187
-5.996224 -1.664919 -0.015639
3.208435 3.529852 0.035401
31.381201 3.411417 0.005862
-14.143398 -2.364284 0.013538
8.859618 -9.032357 -0.006728
12.351452 -8.722808 -0.002405
15.181750 5.792071 -0.032678
1.616423 -1.970625 0.020951
-1.718220 -9.818967 0.010832
-6.279393 -7.264415 -0.015217
8.761334 -8.585627 -0.014327
39.170819 -3.878370 0.018039
14.811694 1.126686 0.008186
25.730266 -2.933934 -0.029548
23.288625 9.226685 -0.035653
-10.118904 -8.156500 -0.009773
-17.270808 -4.853524 -0.021175
32.928539 -5.736774 0.023144
3.971127 9.641695 -0.002479
36.932897 3.535262 -0.020054
-6.723800 0.476068 0.031063
17.000000 -2.580887 2.383768
4.554974 6.611510 0.013645
2.701216 9.595178 -0.017487
18.501190 2.414110 0.022859
30.837954 6.773544 -0.023018
-17.205891 -3.625314 -0.005792
15.577256 -2.156573 -0.047194
-2.964903 2.192658 0.007656
-7.083857 -8.533422 -0.025000
18.624340 7.368545 0.009149
32.123968 2.435438 -0.009357
17.208230 8.622722 -0.018925
-8.836998 -4.242991 -0.011894
33.409382 2.461834 0.002959
9.387159 -7.430221 0.003295
-14.258593 -0.215478 -0.037706
-15.129098 5.074446 0.013354
-17.699057 2.333083 -0.026875
4.473654 9.780454 0.017883
14.989219 -2.454799 3.000000
-18.688187 1.165807 -0.018978
-19.617257 -9.206849 -0.025243
25.612337 -1.602197 0.010433
13.620920 -4.158093 0.006158
25.718185 5.491821 0.010643
35.084593 6.923828 -0.017792
39.826928 -7.425792 0.012758
38.409338 5.998079 -0.008414
-11.732398 -1.045068 0.020130
19.421830 -6.680000 -0.019297
16.300343 9.764692 0.032359
5.823557 -6.169117 0.019447
-2.973446 -1.769893 -0.016162
13.121090 1.706074 -0.009648
-2.816205 -6.148239 0.022772
-8.331066 -1.913044 -0.017717
-4.805278 -9.840362 -0.016479
1.136794 3.490705 -0.017897
-15.585222 -0.429066 0.022975
-5.317064 -0.950669 -0.019572
15.649369 -2.298566 0.000000
9.858973 1.362752 0.016107
-3.186791 8.241644 0.036373
4.480614 9.919301 0.007448
-15.251320 2.366571 -0.010659
33.241931 -8.031127 -0.007393
8.833547 -1.613515 -0.026303
1.647304 -4.443309 0.031922
18.216615 -0.411017 0.012896
-7.701246 -9.769405 0.001923
33.313083 -1.633154 -0.000288
7.517709 -6.932396 0.007014
-15.981583 8.315467 0.026602
27.993478 -7.739043 0.009376
-5.592403 -2.910555 0.001681
16.696516 -1.000000 0.259401
4.000000 0.092796 1.276494
5.661971 -5.845262 -0.004828
32.420119 5.396106 0.028055
20.717431 8.205125 0.023138
38.001857 -0.255777 0.014805
27.174990 6.977157 0.028704
9.500000 3.350935 0.631546
-16.900269 3.502362 0.028351
22.958334 0.172156 -0.019608
-14.600867 -5.859496 -0.001100
25.196604 1.015979 -0.029267
-2.332054 4.116925 0.036010
-1.687128 -0.982473 0.013168
6.571499 -6.601183 -0.011293
-7.496979 -3.670087 -0.046167
-3.596965 -6.732132 -0.009382
38.723028 9.790767 0.023013
24.400332 4.124813 -0.013899
-10.273439 1.151561 0.009789
3.164076 2.747478 0.000003
12.179790 -9.604197 -0.021396
28.993301 2.167931 -0.011617
-16.299182 5.992238 -0.015297
8.605233 -5.505698 0.008377
-3.978304 4.754519 -0.035425
37.056481 4.558282 0.026020
16.415337 -7.134421 -0.006551
7.996183 -5.039701 1.000000
20.112802 2.868707 -0.032402
39.499573 4.279464 0.019594
26.020752 -5.206346 0.052118
19.000000 0.512722 0.415406
3.049611 -2.613009 -0.020967
-15.337281 3.002070 0.002775
29.795082 4.809622 -0.015343
-15.507882 0.396047 0.005623
22.881765 -7.894148 0.027376
13.697573 -3.000000 2.486451
3.333186 -5.878229 -0.005994
19.956030 0.874297 0.000000
6.436187 0.214366 0.000809
8.300000 -4.780794 0.960470
25.422887 -6.711548 -0.022548
-13.612172 2.278769 -0.005676
10.448064 -2.497002 -0.031489
-3.557426 4.093071 0.006206
35.877714 5.225127 -0.052918
-16.799120 9.766091 -0.028864
11.098878 7.781163 0.002899
2.262326 -3.355035 0.004333
20.092768 6.220859 0.004972
-0.496909 -3.501450 0.007274
16.728989 -2.000864 -0.034045
-10.979248 7.447429 -0.026813
21.000000 0.819319 1.416850
30.182715 2.976786 0.001254
-16.496457 9.126741 0.003559
-3.047548 9.364734 -0.051046
13.000000 -2.182376 2.398192
-6.789008 9.948479 -0.042380
-4.033918 -0.702380 0.024724
-11.945695 1.958491 0.005611
14.615849 -1.000000 1.639050
10.463858 8.796205 0.007399
38.668689 9.887601 -0.031116
0.232395 -3.170577 -0.013004
8.095367 3.843082 0.007947
-0.775923 -9.938039 -0.022012
10.851291 7.020541 0.020004
29.330974 -2.216332 0.034728
10.338049 9.775145 -0.003426
7.560761 0.870165 -0.013094
14.046355 1.986148 0.029153
30.508523 -0.722208 -0.004101
21.000000 1.046405 0.615428
12.260657 -1.536758 -0.008717
5.097208 -0.500000 1.408775
32.247830 6.316326 0.019166
-2.224655 6.084385 0.004575
25.613672 9.685627 -0.016640
24.873535 7.978552 0.006599
5.322056 -0.918605 -0.025627
5.984470 -4.184493 -0.003000
25.363667 -4.297740 -0.029079
4.113922 -0.086237 0.044295
-5.985174 0.046506 0.045490
10.500000 2.564020 1.271117
2.632107 -7.597151 -0.014871
18.285564 1.402077 0.022447
-2.920676 -8.657669 -0.003360
39.213757 3.206713 -0.022446
29.735793 -9.352487 -0.007401
30.289298 -9.642799 0.003219
-2.457645 2.981913 0.000329
18.716454 7.554028 -0.001136
29.233584 4.456472 -0.040195
36.087731 -2.225060 0.009592
7.971414 -1.957311 0.037239
-16.140847 2.942728 -0.005468
-11.072242 8.772427 -0.041780
30.465770 2.824586 0.002678
19.000000 1.196693 1.843157
-6.555977 5.798959 0.001337
18.757092 4.661427 0.007208
2.242131 -7.736244 0.000722
17.277547 2.177968 -0.009614
19.119708 -5.315683 0.020740
13.000000 -2.453260 0.306266
-15.772359 6.938055 0.008878
18.553912 -0.123368 -0.017688
-1.150276 4.915675 -0.022835
39.396097 -6.768067 0.018539
7.700000 -4.993999 0.600564
3.327707 -1.600348 -0.023329
28.040941 2.689324 -0.001713
-2.710872 1.765941 -0.004824
31.062547 -4.905095 -0.001561
26.153872 9.552252 0.029747
-1.138993 4.974774 -0.002162
-19.400374 -0.780578 -0.007044
32.366364 3.247276 -0.010131
35.945667 -1.433860 0.014478
14.397842 6.134365 -0.015813
-16.998871 8.496338 -0.016509
22.453201 -7.489908 0.031717
39.226005 -1.094119 0.001942
17.882520 -0.287260 -0.005223
27.381671 9.857109 -0.010430
1.983004 -4.506672 0.016511
-19.181609 1.963850 -0.012726
-1.135398 5.054083 0.005787
38.259199 5.321111 0.014150
-3.119856 2.679532 0.009159
13.112797 2.292954 0.012045
26.567798 -2.682838 0.008131
14.494755 8.853838 0.013655
0.196257 5.343420 0.036698
21.177206 2.776648 -0.028636
-8.968002 0.019069 0.006476
-11.970298 -0.282888 -0.026529
-8.210782 -6.663593 0.012523
-19.513944 4.726725 -0.015290
-14.164747 -5.110563 -0.008921
36.807387 -4.691236 0.049971
21.120327 -8.066192 -0.004466
15.263611 5.397789 0.299882
-12.881374 -8.101460 -0.012666
34.454542 9.738080 -0.006233
14.328265 -3.494072 0.006950
28.085823 -7.199759 0.015481
-0.227472 -8.463540 0.010827
28.188756 8.559922 0.005332
-8.253321 -0.534185 0.038205
30.562714 -5.188241 0.000164
10.034352 2.694222 0.000000
29.069324 3.055904 0.006359
10.389761 2.500000 0.553845
3.913553 4.335627 -0.016872
7.484132 5.733090 0.011666
-9.241864 -4.030939 0.015591
21.546729 -7.541771 0.015425
13.301111 -3.740619 -0.022035
-3.618272 7.024773 0.012049
25.704910 -5.908331 -0.010428
11.309648 5.889362 -0.018102
-2.207865 -2.699717 0.018314
-17.201513 5.080403 -0.005242
16.474313 7.077828 0.046363
16.614939 3.997345 0.002461
34.550458 5.800095 0.011592
24.120719 -4.401949 -0.019159
8.777917 -7.651427 0.024040
9.722789 7.787895 -0.009399
-10.536781 -4.142616 0.000848
5.118031 -1.673639 -0.022265
-7.777803 -9.401190 -0.037926
30.951739 -5.045882 0.010952
23.498936 -0.330993 -0.008603
-17.632428 -6.933596 -0.000591
15.616882 5.466757 0.058669
19.725321 -3.619150 0.012153
9.814388 2.521118 0.000000
7.770535 -5.566193 -0.007628
23.933493 1.463150 -0.064933
-8.198687 -3.362334 -0.019163
-7.711909 -1.123692 -0.020482
10.546803 6.079884 -0.014185
14.609187 -7.671740 0.013026
38.915067 -4.454708 0.007606
38.027597 -1.693715 0.001621
32.810331 0.690356 0.006276
-13.469461 -4.175045 -0.007393
15.226201 2.080056 0.017906
29.639618 7.795465 -0.025813
38.104892 3.664689 -0.025280
26.297615 -4.292441 -0.016300
22.601364 1.712636 0.028345
22.207471 8.037769 -0.018956
26.964740 1.289258 -0.000306
-12.934270 -3.327251 0.004026
7.054219 -4.264621 0.001691
28.896384 -4.836101 0.001217
7.566806 5.786770 0.006715
7.986825 2.199492 0.028259
9.489478 5.434979 -0.001354
39.517382 -8.571226 -0.013238
6.630149 -2.613531 -0.050373
-6.088423 4.916851 0.016106
-1.413651 3.182973 0.037433
1.042709 9.851239 0.000204
5.646140 2.491340 -0.018115
22.614568 -4.417904 0.013626
28.967534 6.695339 -0.001344
-10.326871 -7.236544 0.005642
30.363638 -0.784707 -0.006191
1.760629 -0.654015 1.622369
-0.727022 -1.407072 -0.037313
26.412651 2.569327 0.015052
-7.080168 8.685399 0.017067
19.679930 3.801014 0.026193
-5.005897 2.311404 0.018470
2.111581 -9.104833 0.004021
-7.467037 -0.873682 -0.008867
16.176588 -2.903267 3.000000
1.470470 0.914682 -0.007072
-0.692185 0.819839 -0.037585
28.504138 1.846354 -0.019752
3.980553 7.692061 -0.027856
-19.501710 -6.763428 -0.033699
-18.441062 -3.878721 0.000325
-12.285364 -1.202110 0.000125
14.328813 -8.848490 0.003320
9.973817 3.500000 1.222728
36.685944 -9.590169 -0.024785
24.066837 1.026644 0.017287
23.851106 -9.471854 -0.012727
-15.381205 -6.615395 0.018143
-18.625648 -6.408834 0.008652
4.661627 -1.321632 -0.017312
15.844474 5.641789 -0.005629
16.568008 1.580687 0.005247
6.472066 -4.987633 -0.037878
-19.604590 -8.548956 -0.006013
-8.037151 -2.272693 -0.015050
29.552721 4.422389 0.032225
35.595258 -9.759002 -0.016530
9.412088 -2.683088 0.017186
7.454027 -9.945190 -0.002903
-8.891547 6.867915 -0.010438
10.049023 4.903109 -0.006669
6.666137 4.552407 0.003892
39.061359 -4.932705 0.018321
0.927435 -1.328353 0.033588
-4.614278 -8.159269 -0.031512
6.000000 -0.178380 1.395951
33.353613 9.388437 0.004130
29.385252 0.825935 0.026144
32.117690 6.376849 -0.006453
17.220572 2.587620 0.029818
14.708255 -4.040484 0.003782
0.934972 9.929169 -0.007786
-18.345906 -3.091400 -0.020299
-8.890097 -2.656080 0.003772
20.787472 -2.274088 -0.016031
-5.935655 -9.290810 -0.009654
11.719350 9.416141 0.042791
-7.776956 4.601770 0.017762
-15.697287 4.842227 -0.015895
33.875151 4.316547 -0.013931
38.636796 -8.155607 0.000610
21.503207 5.116058 0.059988
36.699087 6.231945 -0.000148
-19.141551 7.126560 0.001902
-18.938410 6.907581 -0.005041
9.917909 3.500000 0.348582
22.048505 -4.716594 -0.020401
20.527363 4.763140 -0.025177
38.058826 -3.019359 -0.002589
4.890856 -2.874833 0.005806
-13.769637 9.517609 0.008315
9.500000 2.684210 0.894570
-1.753400 -1.691094 -0.030688
16.403175 2.270287 0.019926
-2.165732 3.500069 -0.007558
4.973181 8.522460 0.003432
30.205967 4.386026 -0.003991
